291252.4787323775 4.630337405072604e6 106.95301829908605
291251.7646336342 4.63033880658995e6 106.94704687111152
291252.49038611096 4.630337394453994e6 105.15804692959084
291251.7650671873 4.630338817746371e6 105.18803714163288
291248.4219487497 4.630345367152878e6 106.9070123180609
291248.26701482746 4.630345670649909e6 106.99100253688049
291248.432543872 4.630345345942744e6 106.96800537413215
291248.4735165213 4.630345265469024e6 106.97702642839391
291248.2610926645 4.630345681221368e6 107.14500769411646
291248.24991337274 4.630345703653e6 107.07302477056943
291248.4660955075 4.6303452802041825e6 106.95200235102276
291252.8077888747 4.630336727175738e6 111.65504662307654
291252.98267056793 4.630336384092789e6 111.6350456543311
291251.8886942044 4.630338531089532e6 111.63803677014353
291251.88958141714 4.630338529525749e6 111.61204208535167
291252.1627955517 4.630337993136594e6 111.63904143974555
291252.1635242867 4.630337992006778e6 111.59503652569474
291250.7875939321 4.630340692074164e6 111.64005495858343
291250.79711494496 4.630340673845718e6 111.57306104724601
291252.82262812473 4.630336748020253e6 104.33502305889844
291252.8169384685 4.63033673711775e6 107.56800814346468
291251.3427364642 4.630339602582642e6 111.63703270031937
291251.3410221436 4.6303396062066e6 111.59902244333702
291249.63150948216 4.63034298855436e6 107.60105832364202
291249.6257420468 4.630342999614173e6 107.63903660739773
291250.339294412 4.630341599360083e6 107.61703558187061
291250.3200850338 4.6303416372036e6 107.59600510412315
291248.330633335 4.6303455415337905e6 107.61501964748444
291248.2071937018 4.630345784271953e6 107.54501096866767
291252.50243915967 4.630337326490242e6 111.64904415090214
291252.7104030704 4.630336918473955e6 111.63004075505049
291251.38084940484 4.630339528185508e6 111.57805424452863
291251.3800668775 4.630339529304916e6 111.63904956463891
291252.8697693623 4.630336631159417e6 107.90105381075537
291252.6130155242 4.630337135257704e6 107.87203350800839
291249.38858928386 4.630343465018385e6 107.64303297138714
291249.4067608653 4.630343429628195e6 107.60303848077315
291252.72784958675 4.630336884677474e6 111.56503814428042
291251.0848573329 4.630340109114619e6 111.57501998990014
291251.1090143014 4.630340061253964e6 111.6410378025733
291250.4964134471 4.630341291376873e6 107.56201009468694
291250.82641011674 4.630340615914966e6 111.63702167484554
291251.07103755575 4.630340135806728e6 111.63806003728676
291249.5460262059 4.630343156240467e6 107.61303301492842
291249.5708816682 4.630343107678067e6 107.58103030801809
291253.26936679194 4.630335846924063e6 107.9000364165456
291253.1655350505 4.63033602503578e6 111.66004673899853
291248.0458390652 4.630346100527287e6 107.60598221428887
291252.215749855 4.630337889134348e6 111.65004905307987
291252.17942558 4.630337960956179e6 111.57204035988127
291250.54273855896 4.630341172643177e6 111.63704826381286
291250.07126821316 4.6303421252878355e6 107.63100483590739
291250.0336299568 4.630342199551661e6 107.57303681931229
291251.934992275 4.630338440225838e6 111.63803440451335
291251.9266003364 4.630338457091487e6 111.5800531304139
291250.3009298718 4.630341674606045e6 107.62400191995465
291249.32565418864 4.630343589018427e6 107.57200884301577
291252.61806732323 4.630337127213683e6 107.59800820486367
291248.0544172972 4.630346105931116e6 104.34803596967912
291248.0423355731 4.630346120147865e6 105.73894904000569
291249.8084248068 4.630342641412251e6 107.59101822616746
291249.83954102045 4.630342579975512e6 107.64502375144203
291250.10567698424 4.6303420580035355e6 107.59501133234981
291250.27545385034 4.630341724870985e6 107.58500697926753
291252.873566883 4.63033662349502e6 107.93203092263659
291253.0561263412 4.6303362398479e6 111.64705660401604
291251.59281371493 4.630339111683297e6 111.65204828894183
291250.0114042333 4.630342242884888e6 107.61501549359963
291249.8831308639 4.630342494761385e6 107.59602573612437
291248.0422352447 4.630346120078648e6 105.77793411078065
291248.4284576631 4.63034534949762e6 107.62205264364154
291248.8549863315 4.630344512653421e6 107.5850133829601
291248.88874720794 4.630344446046839e6 107.63601268560652
291250.82648852485 4.630340615931801e6 111.61201242518179
291248.05254072463 4.630346099975581e6 105.76002200979329
291253.009831467 4.630336331210463e6 111.57305822289408
291252.43914590095 4.630337450831231e6 111.63104797718005
291248.41870808194 4.630345369096278e6 107.5540326461559
291250.56450444215 4.63034115736743e6 107.61699760656093
291249.3119405978 4.630343615672985e6 107.61002039035887
291252.46267237747 4.630337405088725e6 111.56803920490415
291249.20841515233 4.630343818918337e6 107.60001680507118
291249.18069631146 4.630343873093432e6 107.63303303613587
291251.64584911853 4.630339008136482e6 111.57302047921954
291251.65398859093 4.630338991752383e6 111.633043142496
291249.1049003235 4.63034402220413e6 107.58103654156368
291251.8885706738 4.630338538902543e6 110.52898609388404
291252.3221961873 4.630337687727156e6 110.5509923144509
291251.8930579484 4.630338540184891e6 109.05100004193724
291252.3324510272 4.630337677928966e6 109.03802692362945
291249.0718012401 4.630344101696546e6 105.4520563968937
291249.5751322144 4.630343113732549e6 105.47201196466517
291249.07720301 4.63034408267223e6 106.68596973614275
291249.5617813116 4.630343131613511e6 106.69103565070338
291252.7928084148 4.630336785021175e6 107.48798653322335
291252.80167999817 4.630336767452923e6 107.51099369845666
291252.79106337944 4.630336788159196e6 107.52999416313502
291252.3735525027 4.630337613380813e6 106.6769938024949
291251.87827815866 4.630338585410148e6 106.6750386604958
291251.8787796024 4.630338592631058e6 105.47304241024642
291252.3790376476 4.630337610772724e6 105.48204127374751
291249.68845098396 4.630342881423618e6 106.9240224941923
291248.96820969705 4.630344294907457e6 106.93105164549374
291248.95793554705 4.630344315214751e6 106.9100379322975
291249.6921279498 4.630342886262275e6 105.15802545189196
291248.97238146083 4.6303442989661405e6 105.13705847998874
291252.450282482 4.630337448920843e6 108.70905117815995
291251.7760057371 4.630338772209618e6 108.71401937368756
291252.4391732483 4.63033745637496e6 110.81105691380314
291251.7777249668 4.630338754602824e6 110.79903347003247
291251.1163016826 4.6303400742501095e6 107.64198564937675
291251.19889796444 4.630339911083287e6 107.79799311971803
291251.1873696283 4.630339935851882e6 107.48401014394649
291251.1339308804 4.630340040251563e6 107.55406213990706
291251.1565676505 4.630339995402293e6 107.61599668738704
291251.19382601784 4.630339923010222e6 107.50898359377057
291251.26736231864 4.630339778422732e6 107.54803138204
291252.214687222 4.630337902415303e6 110.00997176234938
291252.2154877894 4.630337903240304e6 109.65894336853567
291251.99950802675 4.630338350965422e6 106.16542620965575
291252.0044580239 4.630338343499651e6 105.8359590733577
291249.4578368306 4.63034333991406e6 106.06094715446885
291249.44197085 4.6303433710487895e6 106.06146612794649
291252.77691546973 4.630336816171121e6 107.49402868887638
291252.7723723654 4.630336824950661e6 107.51405011677468
291252.7615093179 4.630336846427496e6 107.4910174991494
291249.20550990006 4.630343836494744e6 105.86044561128355
291249.1897321212 4.630343867374485e6 105.87296007151211
291249.19311153755 4.6303438610425815e6 105.82894216454113
291252.2587488636 4.630337841617598e6 106.2484445947972
291252.2420504651 4.6303378740855735e6 106.29297659513257
291252.2438410836 4.630337871189316e6 106.20244616777286
291251.9966660642 4.630338355621241e6 106.30045969103011
291251.9993223958 4.63033835114189e6 106.1929449487284
291249.44296549 4.630343368472259e6 106.15294772544493
291249.4575938922 4.630343339803754e6 106.14695328514233
291249.44992767164 4.630343354487513e6 106.199958006504
291252.20644764334 4.630337921842152e6 109.53298264209961
291252.22210477624 4.630337890554225e6 109.61495193089505
291252.2227471258 4.630337889873776e6 109.52995360752831
291252.0164314927 4.6303382947882e6 109.52947078173675
291252.01113302977 4.630338301954522e6 110.00299252921295
291252.24515409 4.630337869093573e6 106.13196190872566
291252.2543931877 4.630337852940744e6 105.84195344733075
291252.81510522537 4.630336738251304e6 107.92902059141316
291252.8112837761 4.630336745880773e6 107.91003985846461
