291249.57698613487 4.630343098404222e6 107.59013086999786
291249.5544691802 4.630343142657109e6 107.59113723846039
291251.52547684 4.630339290695929e6 104.34414549745864
291250.67581009 4.630340960866632e6 104.33715276458881
291250.573757182 4.630341161306146e6 104.3601386183306
291250.6701112614 4.630340971965545e6 104.35212940962175
291256.533270743 4.63032941602648e6 108.89512072769276
291256.53226137784 4.63032941853222e6 108.819131800547
291252.7099159575 4.630336912404945e6 111.64614497290029
291252.7077896374 4.6303369168248465e6 111.61113551501617
291256.8021214263 4.630328871474886e6 111.23913117291045
291256.78889900097 4.630328897369002e6 111.25313702902415
291248.7392003026 4.630344745022451e6 107.612136925767
291248.73548791924 4.630344752182232e6 107.63214334063866
291249.21534271917 4.630343809154871e6 107.60516168527967
291249.1912564928 4.630343856533878e6 107.60011952002816
291256.6712069262 4.630329134515319e6 110.40713617058772
291256.68320650054 4.630329110523659e6 110.4661325514022
291249.3202748056 4.6303436030220315e6 107.58712118971144
291249.31288272946 4.630343617339193e6 107.61812456189251
291250.5284758237 4.630341201202275e6 111.5131513133563
291250.54386323225 4.630341171135664e6 111.48705026678203
291255.6600437362 4.630331138879162e6 107.96010556313415
291255.6760233381 4.630331107352573e6 107.97711060398265
291252.16054570134 4.630337992203677e6 111.6541424488922
291252.1612799504 4.630337991055722e6 111.61113092045238
291256.58325133816 4.630329321017243e6 108.42412680706893
291256.56961989665 4.630329347708515e6 108.43912531058531
291255.33904574387 4.630331744951414e6 111.58513977599894
291255.47409700195 4.630331478949519e6 111.66413109209175
291248.04570592096 4.630346109048878e6 107.48404945231422
291248.0565127276 4.630346087614124e6 107.51211247995089
291256.5657526542 4.6303293577816505e6 108.07912807536145
291256.56640060456 4.630329356089273e6 108.14012094228633
291253.34340358205 4.63033566711246e6 111.66012642061862
291253.2734523937 4.630335805165946e6 111.57914755183572
291256.5559993656 4.63032937390456e6 108.5231316363476
291256.5488329538 4.630329387819366e6 108.54813191053206
291256.5692085208 4.630329337525262e6 110.04012640394174
291256.5988919077 4.630329278361936e6 110.15913115434714
291256.54879388306 4.63032938779322e6 108.56312611907569
291256.53148274875 4.630329421641871e6 108.58912157990149
291252.43772922497 4.630337447764261e6 111.59612851967277
291252.45015617716 4.630337423509184e6 111.57113433934836
291249.40204135416 4.630343441936073e6 107.64012792647803
291250.505433016 4.63034127352609e6 107.57608534400191
291250.48553404876 4.630341312578085e6 107.58509114783834
291251.3358318096 4.630339613312975e6 111.64912271436644
291251.34175589686 4.630339601757732e6 111.63612078974232
291255.565191251 4.6303313264834145e6 107.79111457719085
291255.57571118756 4.630331305729689e6 107.80211412321466
291250.2512621677 4.630341773005878e6 107.5941079053908
291250.2477293121 4.630341779757799e6 107.62212195533377
291256.5483175948 4.63032939155808e6 108.15112263429235
291256.548637403 4.630329390723425e6 108.18113213900362
291256.5726802554 4.630329333708406e6 109.60210926321179
291256.5933252968 4.6303292940412015e6 109.46911046364852
291256.5892339365 4.630329287534867e6 111.58813260732639
291256.60268440587 4.630329261261095e6 111.5641361127371
291256.5550949813 4.630329365431957e6 110.01611874349064
291256.5551934583 4.630329365986714e6 109.90712269059365
291248.04470230325 4.630346110176796e6 107.60709936678904
291248.05611844594 4.630346087929113e6 107.5791157651221
291252.2230186708 4.630337869419336e6 111.65212780433865
291252.43373228016 4.630337455263796e6 111.64811826757172
291248.65401044214 4.630344912384321e6 107.6251141746293
291252.74056197 4.630336852695217e6 111.56913611128785
291252.7754017783 4.6303367836435e6 111.65213849592375
291252.98259597813 4.630336376755775e6 111.59715187178932
291252.9788076039 4.630336383824776e6 111.65213695564967
291256.11130974203 4.630330252053391e6 107.93212467415155
291256.1309755732 4.630330213370418e6 107.93611631124146
291256.57143722463 4.630329337112792e6 109.46212799326265
291256.57014856656 4.6303293399617085e6 109.41611557066838
291253.80091961403 4.630334768351797e6 111.58112462187464
291253.8702684796 4.630334631530186e6 111.65512149998742
291254.61451390607 4.630333169147634e6 111.57912132409004
291254.59116514015 4.630333215021689e6 111.58214598435644
291249.86774957104 4.630342526832232e6 107.59614812028023
291249.8579459276 4.630342545958239e6 107.61715714114739
291248.88942622335 4.630344449618596e6 107.62912749225329
291248.86278039747 4.630344502303071e6 107.58413740411508
291253.02362256177 4.630336296223128e6 111.5811209824422
291253.05648921477 4.630336231146e6 111.65012401720153
291256.5718878679 4.630329334833311e6 109.66512315622677
291256.57724903576 4.6303293245013235e6 109.63511331089607
291248.50941761595 4.630345196708492e6 107.60916593028463
291248.5184235304 4.630345179123214e6 107.59213386601607
291256.53396287654 4.630329412867263e6 109.15711383848044
291256.5604403497 4.630329361100574e6 109.11662435114607
291249.4051392364 4.630343435997833e6 107.61813117846854
291249.4159364718 4.630343414911866e6 107.59813227257163
291249.0806782185 4.63034407372407e6 107.62411891691035
291249.0884807553 4.630344058600114e6 107.59311325332817
291256.7714466097 4.630328935635322e6 110.67612628336653
291256.7921080066 4.630328895469099e6 110.61112845154834
291253.7783406968 4.630334812568572e6 111.6051305393897
291253.7776038916 4.63033481370104e6 111.65112963433353
291256.5859558004 4.630329306391487e6 109.7801313334755
291256.57383177144 4.630329330332561e6 109.76413412884122
291249.18263665 4.630343873243635e6 107.63414204375832
291249.1828850297 4.630343872858456e6 107.61913363127782
291255.1479730189 4.6303321458759345e6 107.89312182996947
291255.2634902463 4.630331918991779e6 107.86706199132561
291248.05901926296 4.630346104464748e6 104.34014421985688
291248.10404772725 4.630346015962765e6 104.33913833743267
291249.6236982774 4.630343006249557e6 107.63911444690325
291249.6357777905 4.6303429827941125e6 107.59712285277718
291256.62821735104 4.630329219531471e6 110.33213257390915
291256.6157860452 4.63032924430311e6 110.28313415498124
291248.06531349284 4.630346089559398e6 104.70912480881547
291252.9897640109 4.630336362824118e6 111.57414192758141
291250.1171058682 4.630342036520608e6 107.621154452633
291251.91557795083 4.630338474252915e6 111.57614277144778
291251.9274962656 4.630338450675038e6 111.59813478792194
291248.0538928489 4.630346096285904e6 106.99910813546167
291248.0423189059 4.630346119365873e6 106.95104458860453
291252.7210807585 4.6303368909809645e6 111.57014530681846
291256.8311273938 4.630328815476257e6 111.0911319190491
291256.81796837546 4.630328841396846e6 111.08312858211184
291256.07374403166 4.630330300737788e6 111.59611338961852
291256.0880401642 4.630330272904729e6 111.55711950931426
291256.55664840713 4.63032937323294e6 108.43513518771452
291256.531542508 4.630329422156057e6 108.49711968349806
291254.05925683596 4.630334260551818e6 111.58213621221094
291254.1416454811 4.63033409820204e6 111.64111667951596
291256.5818374661 4.630329315337907e6 109.65613135811836
291256.45685659326 4.63032957283242e6 107.93312532071448
291256.42517136125 4.630329635470599e6 107.88112332929714
291256.28581479006 4.630329909289822e6 107.89612000056279
291256.3022701096 4.630329877027248e6 107.88412609455537
291251.35511587 4.630339575936533e6 111.57211453399282
291251.34184736066 4.630339601893543e6 111.59015335681907
291251.3788107036 4.630339528853238e6 111.6461406964187
291251.61280828016 4.6303390688752085e6 111.6501475700794
291251.37053128454 4.630339545635626e6 111.57212127210813
291256.85530802346 4.630328769573392e6 110.85414161520904
291256.848893131 4.630328782361211e6 110.82813190097063
291255.6073556751 4.630331243521801e6 107.80310789774964
291256.3391647567 4.630329804444694e6 107.89310792443419
291256.3504511763 4.630329782143002e6 107.91013032742325
291256.5479247781 4.630329390867798e6 108.36412766851751
291256.54763732763 4.63032939122683e6 108.39413028954164
291251.5374103984 4.630339267101895e6 104.36412654237864
291256.6410690925 4.630329194441446e6 110.30713469655278
291254.58278856473 4.630333231315293e6 111.60713522861411
291254.5822545321 4.63033323203544e6 111.65513656607025
291253.5279705046 4.6303353048937395e6 111.57712243027352
291253.5429908787 4.630335275376258e6 111.57612046221075
291249.2214065047 4.63034379712607e6 107.621139474726
291251.6527351466 4.630338990737616e6 111.60011726400418
291251.6552174364 4.630338985508144e6 111.65112963661002
291248.42138243 4.630345370130047e6 107.55414441634366
291248.410880064 4.630345390821916e6 107.5471241246421
291250.3289290644 4.630341620321621e6 107.59710586042172
291250.31407482445 4.630341649491736e6 107.60113897270611
291249.8576988158 4.630342546340991e6 107.6321559356545
291249.840059081 4.630342580924991e6 107.64512361902749
291254.70066641277 4.630332999227755e6 111.6631215798719
291256.6920472476 4.630329085436016e6 111.58913207583652
291256.69998553465 4.63032907040904e6 111.50513570866703
291256.549085802 4.630329391929257e6 107.87712244490248
291256.59789337154 4.630329295841016e6 107.89912537940094
291256.70313944644 4.630329071487175e6 110.44513934147291
291256.5318579626 4.630329421329978e6 108.52712645076183
291256.58360888774 4.630329323706046e6 107.930127680248
291252.47527263366 4.630337374105264e6 111.5761577178608
291254.4214172636 4.63033354812561e6 111.66313612012803
291254.0469832576 4.630334284402431e6 111.62213103871971
291251.90341811336 4.630338498154481e6 111.57615210475299
291251.6288472883 4.63033903787723e6 111.57315076657454
291251.6164078049 4.630339062136398e6 111.60113665648132
291256.5884433465 4.630329288635708e6 111.65413680429288
291256.5668381546 4.63032935378746e6 108.35011732870603
291256.56465010124 4.630329358232437e6 108.32912962749407
291255.4740050613 4.630331479411731e6 111.62313097492995
291255.48484716535 4.630331458333696e6 111.5891309539385
291256.5347387524 4.630329411760942e6 109.09612053499299
291253.6236495852 4.630335116241284e6 111.66213432472856
291251.10016770125 4.630340077040265e6 111.57615018106277
291251.10843830765 4.630340060646216e6 111.59612980138424
291254.8291817948 4.630332747006551e6 111.60612550186958
291254.82779977197 4.630332749331686e6 111.6631339991643
291256.56784351845 4.630329342329768e6 109.73113325516701
291249.6118982865 4.630343029423013e6 107.64215174409743
291249.65037210734 4.630342954114007e6 107.59613419971973
291250.084111466 4.630342101512452e6 107.60114770045614
291250.0755202402 4.63034211812522e6 107.64110407403908
291253.2595585441 4.630335832187726e6 111.62113358776874
291256.584019389 4.63032930942195e6 109.89312727278849
291256.5780027991 4.630329321412982e6 109.86913859412404
291254.35573753365 4.630333677762657e6 111.58512427221467
291248.36968924914 4.630345471306681e6 107.6171485028132
291248.18840928556 4.630345828101378e6 107.5491256624948
291256.11041794217 4.6303302536071725e6 107.96113279293445
291253.51634655 4.63033532761151e6 111.59613282552355
291253.51579524705 4.630335328310689e6 111.65213262296274
291256.346400631 4.63032976510029e6 111.55212570709158
291256.47026290785 4.63032952151047e6 111.57012025469614
291255.47837142216 4.630331470602543e6 111.65613272805186
291256.55288579257 4.630329372342158e6 109.64211403882952
291252.9347208921 4.630336496310925e6 107.89014652236433
291252.8977532141 4.630336568639409e6 107.93907958016307
291256.7972693315 4.630328884554862e6 110.72314013820363
291254.3218624509 4.6303337443618905e6 111.58313413743865
291250.7886009667 4.6303406892221235e6 111.61113856298206
291250.7872899991 4.630340691599852e6 111.64014349827106
291250.3083131184 4.630341660542538e6 107.64112473271491
291253.25823848386 4.630335834548972e6 111.65514253601091
291248.74957560503 4.630344724704096e6 107.60113186470332
291248.5086000605 4.630345198212766e6 107.62412891337026
291248.45440465986 4.630345304678368e6 107.63316058283343
291256.5668112618 4.630329343301584e6 109.8851192539446
291249.808982199 4.630342642374269e6 107.59211891934896
291249.7953936523 4.6303426691047475e6 107.58912602984434
291256.8028232969 4.630328873322147e6 110.76912654026843
291256.7968065305 4.630328885320391e6 110.744137887629
291248.1568220216 4.630345889812332e6 107.60412895111277
291248.97927101946 4.630344295605436e6 104.33916201387345
291250.05951836164 4.630342172200751e6 104.34614875960204
291256.53146114526 4.630329420633848e6 108.7421286954894
291256.83185475337 4.630328814341731e6 111.04813688910855
291256.7881716414 4.630328898503528e6 111.2961320589647
291249.89669010515 4.630342469754035e6 107.62412527150838
291250.0561543906 4.630342156445069e6 107.60411810634268
291256.5528861043 4.630329376350945e6 109.05813175345546
291256.54303880717 4.630329396414166e6 108.9551303141895
291251.08129901695 4.630340114135747e6 111.57515943180475
291256.77220068517 4.630328934523822e6 110.62212872843966
291256.75904475246 4.630328960438261e6 110.61413774692329
291250.55602443474 4.630341173903827e6 107.60211577980174
291250.5641074798 4.630341157857881e6 107.62509162185486
291255.5741064176 4.6303312829388585e6 111.58111837933326
291255.5729215458 4.630331284862675e6 111.64013599966616
291251.9328510736 4.630338439826856e6 111.6451312248202
291252.87076132256 4.630336621749904e6 107.93111678934389
291250.5527160409 4.630341202816023e6 104.33814914425636
291250.06900822424 4.630342153444386e6 104.36113539689713
291256.2843506252 4.630329912064801e6 107.91112426364236
291256.2130083012 4.630330052406598e6 107.89512623566459
291256.1961063595 4.630330085450882e6 107.92112902306266
291252.1897771568 4.630337935301919e6 111.57312998486411
291252.8708597996 4.630336621796674e6 107.89611059825171
291248.84951652173 4.630344528148342e6 107.61712500925137
291256.5529689114 4.630329378371502e6 108.74012323566089
291256.32971199893 4.630329797739098e6 111.57611708005037
291256.3283610457 4.630329800078682e6 111.62212578980628
291248.9652229136 4.6303443230677415e6 104.36114753374729
291256.5967342806 4.630329297247534e6 108.02610823303289
291250.30344870995 4.630341670104169e6 107.6411177530846
291250.3006753222 4.6303416756724e6 107.62410515995523
291256.6114422231 4.630329253644673e6 110.16613725159567
291256.81527609116 4.630328845562873e6 111.2471317724002
291256.8092691234 4.630328857548751e6 111.22113900270745
291256.54881646286 4.630329385318357e6 108.91713347852641
291250.33899460686 4.630341600399097e6 107.61713091646061
291250.4860169055 4.630341311402212e6 107.61811944135033
291256.6471721779 4.630329182499979e6 110.29914048507509
291256.64155860944 4.630329193698943e6 110.27513442214111
291256.5560142563 4.630329373394841e6 108.59311057864832
291255.5905931597 4.630331250676309e6 111.56012463373699
291256.68518360355 4.63032910750249e6 110.34013273352211
291256.6735845147 4.630329130706935e6 110.28113820438489
291252.4994214557 4.630337326136794e6 111.64913618867702
291248.0511367943 4.630346115256451e6 105.02504126929522
291254.30968499026 4.630333767748927e6 111.6631318445818
291254.15251959 4.630334076662807e6 111.66512883630998
291250.81446291535 4.630340638648245e6 111.57313665200294
291255.73591123975 4.63033098982791e6 107.94910927411256
291255.73249286355 4.630330996649996e6 107.93412829095367
291251.3826258649 4.63033952166325e6 111.60110859425774
291255.0784663308 4.630332256671182e6 111.65513550032821
291255.07598294946 4.630332261895868e6 111.60513271967072
291256.5957018471 4.630329299750521e6 107.95712467242107
291256.75977355643 4.630328959294097e6 110.5721330729843
291256.55093080166 4.630329379377292e6 109.17713582277497
291256.5918335335 4.630329297337203e6 109.41612752003476
291256.56159257813 4.630329362690778e6 108.55512380384373
291255.82457328954 4.630330790176539e6 111.64511985521057
291253.7889436903 4.630334791884987e6 111.58213489190054
291256.4763587509 4.63032950908887e6 111.63413245557257
291250.5290270455 4.630341226949711e6 107.60513760983876
291249.1398519979 4.630343957300992e6 107.6401208032983
291250.8259876342 4.630340615844154e6 111.5951103183006
291250.2703915865 4.630341735528338e6 107.57609855861101
291256.56003429 4.630329364394438e6 108.75311671907261
291256.58193647326 4.63032932481713e6 108.24710543833348
291256.3685788783 4.630329746689338e6 107.88412754634773
291248.60594137176 4.630345006903997e6 107.62014624005577
291248.62873365125 4.630344962350146e6 107.58415114174605
291255.91095943336 4.630330645873031e6 107.93112078136205
291255.8962153904 4.630330674977873e6 107.91311162978278
291256.6599318023 4.630329157371392e6 110.30613237838675
291255.3291121481 4.630331763962225e6 111.66013259390249
291255.3294519389 4.630331763644459e6 111.6091345148541
291254.0466727388 4.63033428475871e6 111.6591390262778
291256.81122424954 4.630328854529616e6 111.10113495941299
291251.1076809903 4.630340061791418e6 111.64614669635802
291256.5482173204 4.630329391027387e6 108.25712838323783
291248.9611910624 4.6303443085559495e6 107.62915383096734
291249.1067291932 4.630344022812788e6 107.58114280964391
291248.0541701373 4.630346111278217e6 104.73604052018028
291248.06145013607 4.630346095134737e6 105.00313415368579
291255.09002941416 4.630332234430074e6 111.58412520037757
291256.85609988146 4.630328768470125e6 110.78812780026917
291255.70718251815 4.630331046441872e6 107.9281081187989
291255.28656333627 4.630331873665865e6 107.86312450935819
291249.88154418493 4.630342499724131e6 107.5951461458949
291249.6669304342 4.630342921374428e6 107.62412667584742
291248.9679608128 4.63034429544142e6 107.60115452062824
291256.53438278264 4.630329412570513e6 109.08011762027127
291254.84181151947 4.630332722339155e6 111.58313356405749
291252.8225757179 4.630336741153347e6 104.33510928928179
291256.6719313766 4.630329133379731e6 110.36512875920123
291250.5135571889 4.630341230245179e6 111.55414928152757
291250.50152996357 4.630341253673489e6 111.58512318398475
291248.42750516545 4.6303453577242615e6 107.60815406620875
291256.6109536211 4.630329254399175e6 110.19612796008403
291256.63513844844 4.63032920648334e6 110.25113153637851
291250.5441733676 4.630341169454542e6 111.64311974888828
291250.5350813613 4.630341187827451e6 111.57007876488225
291255.8269377849 4.6303307858378375e6 111.60011297426816
291249.7841417936 4.630342690960727e6 107.62712823813675
291248.1150443167 4.630345994505392e6 104.31616104012001
291255.1430640947 4.630332155415209e6 107.90911591338364
291255.76939604135 4.630330924057501e6 107.94211562175255
291255.7851659609 4.630330892936323e6 107.96010324914523
291252.1771774629 4.630337960047378e6 111.5761539607304
291256.72538050526 4.630329020602054e6 111.48912878364072
291250.113902599 4.630342042913154e6 107.60715235898634
291254.31065799686 4.630333766220949e6 111.60711599468976
291256.1486929911 4.630330178716335e6 107.91111579554202
291255.2717028399 4.630331902731819e6 107.88412011295428
291256.47624518635 4.630329509538691e6 111.60112806094631
291248.6481707 4.630344924027618e6 107.60114295720982
291256.56799068896 4.630329351851621e6 108.30210911388532
291252.8140017495 4.630336735803265e6 107.56908678018661
291249.54748159007 4.630343156192903e6 107.6201452518163
291256.55317742005 4.630329371981762e6 109.61111418127794
291251.88701872923 4.630338529902208e6 111.64712102244398
291250.5061704524 4.63034124442175e6 111.60410133191854
291256.7470998779 4.630328984473547e6 110.53312669816282
291252.6065604075 4.630337141734475e6 107.83414961644242
291252.61967721686 4.630337115725489e6 107.86711257285779
291251.0632933373 4.630340149040911e6 111.64611820533919
291256.07406528434 4.630330299893494e6 111.62711325033138
291256.547727627 4.630329391777102e6 108.28812868367453
291256.71323358454 4.630329044533163e6 111.48113691951538
291250.52896262833 4.630341199963851e6 111.55416016272125
291256.09554526757 4.630330282662794e6 107.98712005406283
291256.0113627981 4.630330448566172e6 107.9241162285348
291255.84001251083 4.630330760405581e6 111.56112182508885
291256.14669970906 4.630330182737295e6 107.89612475784719
291250.8256593156 4.630340616201103e6 111.63711684391683
291252.6169685564 4.630337122910126e6 107.59613381693428
291256.85402465437 4.630328771430098e6 110.95113375719134
291255.99507229205 4.630330480415406e6 107.94912866309258
291252.6336607834 4.630337090223191e6 107.5781230518785
291251.8873181814 4.630338529560721e6 111.6111267699126
291255.8008510261 4.630330862277053e6 107.93510590429459
291250.51760624506 4.630341222217734e6 111.56413172978958
291256.7338861597 4.6303290103505105e6 110.54713802917153
291256.59573731135 4.63032929624117e6 108.45811999384898
291256.62629452173 4.63032923603993e6 108.47812532774985
291256.6334180387 4.630329222085916e6 108.47111644658641
291256.6328349602 4.630329223307482e6 108.46012627385971
291250.50223617617 4.630341251928549e6 111.6370914266648
291250.48520038684 4.630341285496576e6 111.62512982708616
291250.46892024134 4.630341317359865e6 111.64512863071737
291256.55245039286 4.630329375113469e6 109.36311804250644
291256.5702365066 4.630329340001634e6 109.3851230365278
291256.57278886356 4.630329335232005e6 109.34909764815902
291256.77339646727 4.630328932612766e6 110.55812906854786
291256.77295929077 4.630328933396534e6 110.56913388493527
291249.67996528937 4.630342900407674e6 106.94613551053845
291248.9694098489 4.630344297186242e6 106.93215743850624
291248.9744086994 4.63034429967736e6 105.13815103399544
291249.68192735786 4.6303429089295445e6 105.14315810455254
291249.6895763119 4.630342881667197e6 106.9241200780556
291249.6930528591 4.630342886910243e6 105.16512030119955
291248.9642025438 4.630344319553457e6 105.16514569161421
291248.96017687646 4.630344315527149e6 106.90413622020795
291251.98911889887 4.630338361439219e6 106.95311742340135
291252.0007005935 4.630338338797405e6 106.93514281038648
291252.4876859563 4.6303373937690705e6 105.15813512025535
291251.7761149471 4.630338792509632e6 105.14914270783852
291252.48211451166 4.630337392437963e6 106.94711546144322
291251.7658421101 4.630338800350877e6 106.94814429399494
291251.754391583 4.63033882303706e6 106.92210325835538
291252.0071558246 4.630338326033306e6 106.94614869810788
291251.76389621256 4.630338816348597e6 105.17513227617441
291254.1918902094 4.630334013219555e6 109.63407225311238
291254.1829748438 4.630334030928645e6 109.607146450381
291254.1892232171 4.630334015914626e6 110.00508381727003
291254.1813328131 4.630334031595382e6 109.98014605627539
291254.1890472335 4.630334015930726e6 110.05312281466362
291254.1966542194 4.630334004218815e6 109.58112751774821
291254.1959860781 4.630334002305539e6 110.051090867235
291255.34429344186 4.630331752054561e6 109.04813125455617
291255.3465066108 4.630331746145842e6 109.27512735566249
291255.7768013129 4.630330891774513e6 110.52411667462903
291255.60830735695 4.630331222990426e6 110.52110478593364
291255.3375051323 4.630331756184107e6 110.39013676222173
291255.3487615306 4.630331738679184e6 109.71708900746593
291255.3566207204 4.63033172608717e6 109.30107797539743
291255.5611146142 4.630331325365379e6 109.1210978458942
291255.55928194826 4.630331329462009e6 109.0491010420296
291255.3384404714 4.630331759151541e6 109.69013338174612
291255.5402205904 4.630331366366633e6 109.13107150931604
291255.3465891882 4.630331738143136e6 110.41710614267072
291255.3419517852 4.630331746372751e6 110.54612007376744
291255.5861303697 4.630331266410348e6 110.54610291112756
291255.537739112 4.630331371704056e6 109.06410349989933
291255.7843431684 4.63033088706309e6 109.05112382830691
291251.87371896463 4.630338590084716e6 106.6890511942382
291252.3672274649 4.630337619985649e6 106.69610956384625
291252.07806849503 4.630338196814322e6 105.46508166255906
291252.3732904619 4.630337616540107e6 105.46213312893994
291251.88029216917 4.630338585601488e6 105.46014491707174
291252.06790336565 4.630338216897702e6 105.45013911651962
291252.05920107866 4.630338233907377e6 105.46408129532765
291255.5714227584 4.630331293102209e6 110.8691220250879
291255.5872978883 4.6303312620419245e6 110.84811865835695
291255.229870817 4.630331979327855e6 108.70412807570558
291255.9309135354 4.630330601343745e6 108.70411541515351
291255.4956837627 4.630331442278296e6 110.8251441610715
291255.5159608531 4.630331402407483e6 110.82714547134616
291255.94285192643 4.630330575851905e6 108.99913472942221
291255.92997688736 4.630330601385976e6 108.96612590388813
291255.5357435434 4.630331363309387e6 110.85814439666007
291255.56179991044 4.630331312325915e6 110.82413920124816
291255.5617459491 4.630331312301501e6 110.84314432929587
291255.5256262428 4.630331383237409e6 110.85213695421496
291255.48996389244 4.630331453411579e6 110.84113868420951
291255.93021710974 4.630330600508667e6 109.02513346968507
291255.2184411043 4.630332001643243e6 108.72613521254787
291255.9358417649 4.630330577321229e6 110.79212642667673
291255.21067491383 4.630332002751724e6 110.78813544165997
291255.2144298189 4.630332007111269e6 109.07812691853779
291255.2203390356 4.630331983584076e6 110.81313654250216
291255.20556864206 4.63033202467321e6 109.05711979897659
291255.58616024454 4.630331264484018e6 110.81812609186878
291256.04802299966 4.630330369400229e6 108.95911212002139
291256.06407256523 4.630330337921448e6 108.94912319081251
291255.9664098452 4.630330529086091e6 109.06611742249154
291255.99570166256 4.630330471749648e6 109.03113661068193
291255.94882650394 4.63033056429359e6 108.97212480917769
291256.0308810324 4.630330402826964e6 108.99812884684505
291256.0487520006 4.63033036725322e6 109.06311881310974
291256.0810530014 4.630330304407045e6 108.96912179608192
291256.0812497995 4.630330303512166e6 109.04312083297498
291254.3038379543 4.630333797243884e6 109.04109536644143
291254.1675821745 4.630334065125928e6 109.03310767114351
291254.1726533152 4.630334057149092e6 108.74309689667895
291253.37403171253 4.630335614433851e6 110.56413135402596
291253.37639626104 4.630335620125626e6 109.05813719430577
291253.38556298806 4.630335591651097e6 110.5811202433172
291253.3870183223 4.630335599438945e6 109.03013339078505
291254.1634133173 4.630334062541325e6 110.60310422504173
291254.29808650486 4.630333797934633e6 110.58712079886331
291254.1569681872 4.630334073919025e6 110.79113991638843
291253.48998846585 4.630335384941373e6 110.79214643793479
291253.497628528 4.630335384238745e6 108.7071429595769
291253.4837980853 4.630335411286999e6 108.72711980245896
291253.47572736297 4.630335425256059e6 109.00312115986586
291253.4641449096 4.630335447858322e6 109.02707364333624
291254.3122828198 4.630333780438552e6 109.07108945031
291253.4508195496 4.630335463340133e6 110.58713625643425
291253.43867199396 4.630335487156081e6 110.59610000309475
291254.1654038871 4.6303340575164575e6 110.76509424831798
291254.1655725691 4.630334071217924e6 108.72113664449105
291253.40912987554 4.630335545485363e6 110.55813132129822
291253.4057137007 4.630335552104609e6 110.5720644272837
291253.4745529225 4.630335416579857e6 110.60308003018511
291253.4775285737 4.6303354096253095e6 110.76410633695427
291252.32895186223 4.630337668822695e6 110.54110621629809
291252.33595155994 4.63033766540332e6 109.03514152630179
291251.88582192943 4.630338539827349e6 110.54413411216835
291251.8940884119 4.630338533973126e6 109.03013382843469
291252.41840254073 4.630337491101548e6 110.81712302158859
291251.7834848862 4.630338739156973e6 110.81012673538916
291251.774111063 4.630338771931598e6 108.72011197977963
291251.78389801836 4.630338752831387e6 108.70012357446507
291251.76918295556 4.630338767516233e6 110.77413766043952
291252.4382600695 4.630337466562381e6 108.70613959286818
291252.44953646127 4.630337444211869e6 108.73314390529096
291252.4481193037 4.630337432902604e6 110.7861068172792
291250.3396918608 4.630341571751472e6 111.59012917362165
291250.3432136498 4.630341565014344e6 111.56312885870538
291250.3751600202 4.63034150181533e6 111.62205453927777
291250.37513857457 4.630341502028478e6 111.59714863218997
291250.3846740646 4.630341483319596e6 111.59215628393501
291250.3692757886 4.630341513724463e6 111.57210057082266
291250.37531230244 4.630341501406081e6 111.63806477741049
291250.38598898024 4.63034148037133e6 111.64512176630379
291249.07887243404 4.630344083706977e6 106.68707004929136
291249.07330051524 4.630344103130797e6 105.45316221195107
291249.57175919076 4.630343114857306e6 106.69015463631091
291249.5748459545 4.630343117303574e6 105.45010946267551
291251.2713121808 4.630339767994907e6 107.59110451479442
291251.2095115711 4.630339888159962e6 107.78213066846253
291251.1902572393 4.630339925972527e6 107.78710491437853
291251.1150178391 4.630340074798565e6 107.65107884195486
291251.26593123906 4.630339778866826e6 107.54813275845198
291251.1924496054 4.630339923510239e6 107.51807256693326
291251.18305578944 4.630339941947041e6 107.52213330358684
291251.1674227829 4.630339972010002e6 107.6190806109538
291251.12702181964 4.630340051374715e6 107.62611033205667
291251.1373370623 4.630340031640972e6 107.54714972948152
291251.1447454939 4.630340016824793e6 107.58414732504552
291251.2044748041 4.630339900044805e6 107.49308615290497
291251.1705018792 4.630339966712431e6 107.50914659843528
291251.1656060158 4.63033997571799e6 107.59913875599679
291249.7607622588 4.630342735213549e6 107.87509998566166
291249.7526707014 4.630342751057022e6 107.88405191572954
291249.7497723314 4.630342756829057e6 107.87313697325717
291248.4669759118 4.630345278265975e6 107.88107392010205
291248.45797736547 4.630345295980539e6 107.87716557055333
291254.0399120494 4.630334305771793e6 110.53409369425867
291253.6814246808 4.630335010387459e6 110.53913144468055
291255.6380316859 4.630331171340068e6 109.53409933143595
291255.639014938 4.630331166338473e6 109.98109391760435
291255.6646049392 4.630331119031883e6 109.54505886068611
291255.6574153763 4.63033113001231e6 110.00408927078857
291255.65676008974 4.630331134671381e6 109.51308821105401
291256.5420524574 4.63032938787621e6 110.48110302289717
291256.5416152808 4.630329389167964e6 110.41811797747977
291256.5637496026 4.630329345262038e6 110.47612331473127
291256.5572613279 4.630329358550949e6 110.39813707481738
291256.5642958135 4.630329344552224e6 110.42313031974285
291256.54154223134 4.630329389634293e6 110.37110973031146
291256.5579639252 4.630329357849768e6 110.29911331654202
291256.5412654944 4.630329390500943e6 110.32410880655414
291256.5650460649 4.630329343427663e6 110.37212994929337
291256.5658015848 4.6303293423065245e6 110.31912275036808
291248.4502695234 4.63034531707707e6 107.01113494842228
291248.41409904475 4.630345388902434e6 106.90511140408793
291248.27902970696 4.630345653992191e6 106.96415230480035
291248.2523029748 4.630345705552067e6 107.10612738568618
291248.25952370104 4.630345691139264e6 107.13811179320874
291248.3359176415 4.630345542426116e6 106.9271510457208
291248.3583655677 4.630345498157759e6 106.94816075083511
291248.28481637046 4.630345641272445e6 107.16010824375199
291256.55157783674 4.630329366694866e6 110.83912749165518
291256.54480808636 4.630329379809396e6 110.86712680199427
291256.5398693604 4.630329390347768e6 110.74613133136423
291256.52328520035 4.630329422012286e6 110.88212097370727
291256.52278168726 4.630329423764152e6 110.77111120864734
291256.4893161914 4.630329485521382e6 111.35711058171752
291256.5072264067 4.6303294504745575e6 111.33411645160874
291256.51143962314 4.630329441623035e6 111.4171296279707
291256.48974665505 4.630329484235843e6 111.42111209960913
291252.0207254041 4.630338280577025e6 109.6820468575603
291252.0209667178 4.630338280212489e6 109.66605496960409
291252.00039852946 4.63033832042206e6 109.69805343880591
291256.5059010371 4.630329454823647e6 111.08010944222195
291256.5212156476 4.63032942452167e6 111.10913214555303
291256.5051980136 4.630329456974471e6 110.96810976404555
291256.536820015 4.630329394810594e6 110.96913106068402
291256.52310822887 4.630329421927648e6 110.94511563393678
291254.048891583 4.630334298323554e6 109.04812131746287
291254.040462365 4.630334314933952e6 109.042040047233
291252.2595689992 4.630337836002669e6 106.05504667576338
291252.24095595727 4.630337872705459e6 106.0380626329183
291252.2637470926 4.630337828078421e6 106.01305489291228
291252.2418613798 4.630337871152371e6 106.0050532126047
291256.54079640686 4.630329388807071e6 110.70512618851508
291256.55451287923 4.630329362154664e6 110.6601227694122
291256.5422152972 4.630329386478172e6 110.63811099713067
291256.52300317446 4.6303294238711465e6 110.69211548537338
291256.5227307911 4.630329424729221e6 110.64511729906357
291252.00713337836 4.630338331783429e6 106.11505054471125
291251.9874230315 4.630338370444046e6 106.1270599706658
291252.0117430269 4.630338322578429e6 106.13605068780342
291252.0114517524 4.6303383229244e6 106.16905049330492
291251.98975478375 4.63033836553136e6 106.1750301754458
291250.1762674898 4.6303419185835775e6 107.86114925141042
291250.16843747656 4.630341933920192e6 107.86904705222791
291250.17855604517 4.630341913989743e6 107.87504487669963
291256.53867328743 4.630329397216481e6 110.08811515726006
291256.5391940505 4.630329395973229e6 110.12010493108937
291256.5553717182 4.630329364565307e6 110.06311966724795
291256.5625875816 4.630329350203057e6 110.08913308484087
291256.5567752088 4.630329361264143e6 110.14212686649512
291248.30556554004 4.630345595050145e6 107.9520690201596
291248.3116467724 4.630345583035099e6 107.96104832359784
291248.321165627 4.630345564420411e6 107.94709882454009
291248.26456724055 4.630345675520566e6 107.96906548085232
291248.2531874904 4.630345698087273e6 107.94016309655102
291248.27794420405 4.630345649315513e6 107.95610458206204
291255.61388311436 4.630331226304224e6 108.44210439608852
291255.6058240201 4.630331242316861e6 108.41712305737626
291255.6297664219 4.630331195248423e6 108.41810658232772
291255.6295603547 4.630331196134032e6 108.34811158441288
291255.6111079817 4.630331232472905e6 108.33813387084747
291249.70537036995 4.630342844127044e6 107.87014155731197
291249.71027407644 4.630342834419996e6 107.88007813961654
291256.64711548394 4.63032918246729e6 110.32013320565183
291256.6591730202 4.630329158505892e6 110.35812724791617
291256.640314664 4.63032919556737e6 110.35913230352972
291256.6752590186 4.63032914352231e6 107.93512728301171
291256.69284218334 4.63032910883001e6 107.9541300605458
291256.67488653737 4.630329143842478e6 107.99513481962235
291256.6573784284 4.630329178593222e6 107.94613126958012
291256.6931645274 4.630329107990501e6 107.9841203293103
291256.76193239173 4.6303289732792005e6 107.91708365990083
291256.7621517997 4.630328972772684e6 107.92804305321593
291256.6804285952 4.630329139615456e6 107.02412808413098
291256.6868205755 4.630329127305318e6 106.98712160763074
291256.69324891415 4.630329114525406e6 107.00813004636348
291255.5615389674 4.63033131063518e6 111.14510820632837
291255.54647622805 4.630331340091817e6 111.16710148933706
291255.5448541593 4.630331343795035e6 111.09211253300498
291255.5606135418 4.630331312667011e6 111.11411381734926
291255.53842531145 4.630331356108938e6 111.13912570359491
291248.9238408755 4.630344380139807e6 107.89605605842004
291248.9238375098 4.630344380249122e6 107.88109765813662
291252.242369226 4.630337870387562e6 105.97105432205976
291252.2644619209 4.630337826947987e6 105.97305157255407
291252.2596718297 4.63033783654885e6 105.9460533603139
291255.5143764316 4.630331402102935e6 111.32512251435008
291255.5315670593 4.630331368141146e6 111.35010678555744
291255.509674457 4.630331411228525e6 111.3421216037491
291255.5167011179 4.63033139721089e6 111.37210924365438
291255.593265371 4.630331266041218e6 108.55712282623502
291255.6150100446 4.630331223354512e6 108.54910050735815
291255.5941562559 4.630331264475438e6 108.53012427337542
291256.51535518485 4.630329433088935e6 111.53912736081551
291256.5084086394 4.6303294466196e6 111.55713144355428
291256.48871295387 4.630329485725285e6 111.50011788058033
291256.5091979615 4.630329445521186e6 111.49113686456116
291256.49583016365 4.630329471323476e6 111.56013751529046
291256.4703477622 4.630329521556546e6 111.53911536513468
291256.488461665 4.6303294861094e6 111.5161139116149
291248.0204855122 4.630346155546591e6 107.93208612242347
291248.0349040201 4.630346127150606e6 107.94004818252807
291248.031998231 4.630346132957707e6 107.92614981663007
291250.5074369998 4.630341267445097e6 107.88806325118023
291250.51813824306 4.6303412464718595e6 107.8791274631858
291250.5131139924 4.630341256413012e6 107.86960460136503
291256.5067069116 4.630329451715384e6 111.30211705980605
291256.5062275787 4.630329452987142e6 111.25411386751138
291256.48892897554 4.630329486831702e6 111.27711761875481
291255.5883546783 4.6303312595596025e6 110.90711890390419
291255.57177872816 4.630331292292639e6 110.88512493980961
291255.56621514075 4.630331303022522e6 110.91513249057793
291255.5881075665 4.630331259942355e6 110.9221176984113
291255.5728355181 4.630331289810317e6 110.94412518535685
