291256.5341111755 4.630329411944223e6 109.24911616275556
291256.55116979417 4.63032937848885e6 109.23813326213117
291256.53407122433 4.630329412441461e6 109.18812974084258
291256.5154360603 4.63032944911236e6 109.182124054525
291256.51559152914 4.630329448175098e6 109.27412881672701
291256.5340678999 4.630329411919375e6 109.26512503560238
291256.53442912543 4.630329411106308e6 109.28013231512132
291256.55143854796 4.630329377631049e6 109.2861309333989
291256.5633621863 4.630329354070171e6 109.30412272938864
291256.56935557886 4.630329342069677e6 109.33613098447196
291256.55208056874 4.630329375943519e6 109.34811501325889
291256.5524028848 4.630329375097005e6 109.37913380636346
291256.5702307684 4.630329340012985e6 109.38512895442553
291256.57278679614 4.630329335236161e6 109.34910056042774
291256.5866283939 4.6303293077196535e6 109.39413279315248
291256.5705900762 4.630329339203838e6 109.40011430325704
291256.5704710667 4.630329339114976e6 109.44712969584519
291256.55198282184 4.63032937539416e6 109.4561159097791
291256.55234318646 4.630329374575872e6 109.4721300517537
291256.58801122406 4.630329304363269e6 109.48709799185086
291256.5814102842 4.6303293168402705e6 109.55962513185983
291256.57593379513 4.630329327381721e6 109.59214240119215
291256.57066966814 4.630329337742801e6 109.59013205593686
291256.55321991525 4.6303293720012745e6 109.59612187726884
291256.5527974039 4.63032937230311e6 109.6731232706331
291256.57000912435 4.630329338409618e6 109.68212099840575
291256.5772483529 4.63032932450271e6 109.63512295071112
291256.5813514732 4.630329316087298e6 109.68613557796202
291256.56784154696 4.630329342333795e6 109.73112721578224
291256.5678088596 4.63032934232253e6 109.742126347777
291256.5738309366 4.630329330334341e6 109.76413004760812
291256.5859562806 4.630329306390695e6 109.78012522071188
291256.5821778324 4.630329313512094e6 109.82463648899379
291256.57803001866 4.630329321428297e6 109.85913092866019
291256.58401977166 4.630329309421282e6 109.89313097796743
291256.57186696737 4.630329333350283e6 109.88713071514157
291256.55519726354 4.630329365979331e6 109.90712449990669
291256.55509551376 4.630329365431011e6 110.01611997316944
291256.5692120962 4.630329337518303e6 110.0401323222529
291256.58121033036 4.630329313536118e6 110.09813222911184
291256.5807592774 4.630329314285408e6 110.11813170699182
291256.595887389 4.630329284350127e6 110.14713849381425
291256.61144345923 4.63032925364231e6 110.16614335377344
291256.6109235264 4.630329254382892e6 110.20713159244849
291256.6230488704 4.630329230439246e6 110.22312676555225
291256.61627888575 4.630329243547341e6 110.25213033328481
291256.6157250414 4.630329244278997e6 110.30412734892894
291256.62821611133 4.630329219534026e6 110.3321311448721
291256.64106941054 4.630329194440969e6 110.30712888714201
291256.6415571536 4.630329193701904e6 110.27513570052471
291256.6471719509 4.630329182500634e6 110.29912592545197
291256.6599256007 4.630329157383683e6 110.30613349119916
291256.67312116834 4.630329131473617e6 110.30214018984384
291256.66594840435 4.630329145380372e6 110.33013162599298
291256.67238957353 4.630329132616507e6 110.34512941490158
291256.6851799135 4.630329107509781e6 110.34014327191144
291256.67192856426 4.630329133385337e6 110.36513325627826
291256.67431232415 4.630329128327227e6 110.41939513253237
291256.6832083019 4.630329110520242e6 110.46613031041134
291256.69633849483 4.630329084587646e6 110.48413527304555
291256.7030789341 4.630329071462025e6 110.46614312302088
291256.70314030594 4.630329071485595e6 110.4451394357739
291256.72115770425 4.630329035493579e6 110.52912927165055
291256.7338886231 4.630329010345822e6 110.5471316058958
291256.7470997769 4.630328984473861e6 110.53312582707184
291256.74704277114 4.630328984441691e6 110.55413215505763
291256.7597693239 4.630328959302534e6 110.57213184856408
291256.7530276605 4.630328972430496e6 110.59013364356306
291256.7590448738 4.630328960438125e6 110.61413878259239
291256.7849315282 4.630328909376336e6 110.64012923850652
291256.77214360365 4.630328934491924e6 110.64313323224705
291256.7714438353 4.6303289356408585e6 110.67613018776568
291256.7972722598 4.630328884549241e6 110.7231366166399
291256.7968072476 4.63032888531911e6 110.74413503475914
291256.80282604846 4.630328873316839e6 110.7691277462955
291256.823097179 4.630328833471443e6 110.76913354231968
291256.8489216007 4.630328782380864e6 110.81713454793646
291256.84197872924 4.630328795904375e6 110.83512888588442
291256.83500194625 4.6303288094189605e6 110.86413200080143
291256.8481333634 4.630328783484024e6 110.88212731846134
291256.8553104935 4.630328769568668e6 110.854138523051
291256.85405602 4.6303287714440385e6 110.94013935666942
291256.8325587371 4.63032881318467e6 111.01513262153009
291256.83185337845 4.630328814344545e6 111.04813658128423
291256.8251452632 4.630328827488991e6 111.05413238183277
291256.83112614974 4.630328815478835e6 111.09112844708076
291256.81796727225 4.630328841399127e6 111.08312803969876
291256.8112256088 4.630328854527088e6 111.10112983469776
291256.81076096004 4.630328855289397e6 111.12312547029833
291256.8040476178 4.630328868437223e6 111.13012549256375
291256.80926928186 4.630328857548512e6 111.22114413126477
291256.8152797138 4.630328845555881e6 111.24712877880486
291256.8021208363 4.6303288714761725e6 111.23912837142288
291256.7821916108 4.63032891051212e6 111.2591343142921
291256.78814417607 4.630328898482099e6 111.30713215227364
291256.75387119496 4.630328965358941e6 111.37862516417016
291256.7338603657 4.630329004352775e6 111.42812819447614
291256.7296397551 4.630329012480608e6 111.45263978317
291256.7253749464 4.630329020613075e6 111.48913015414925
291256.7193059543 4.630329032569896e6 111.48512712138886
291256.70041949215 4.630329069624779e6 111.4951395000769
291256.6992830329 4.630329071563449e6 111.53813310098118
291256.6924803609 4.63032908466028e6 111.57813580070851
291256.68533505726 4.63032909858168e6 111.59613232657973
291256.6792887961 4.630329110569307e6 111.58113452532129
291256.66607850307 4.630329136446488e6 111.59413344168958
291256.6340894426 4.630329199468954e6 111.57314465004714
291256.6280531378 4.630329211437039e6 111.55814248529198
291256.6026865353 4.630329261257042e6 111.56413163563997
291256.58923553245 4.630329287531789e6 111.58813887616182
291256.5884420682 4.630329288638329e6 111.65413586840354
291256.54422777874 4.630329375526321e6 111.65712718127229
291256.47635987296 4.630329509086791e6 111.63412854249707
291256.4762424045 4.630329509544277e6 111.60112541221963
291256.47026247357 4.630329521511409e6 111.57012229683404
291256.42509680707 4.630329610314112e6 111.56660813010524
291256.36407188326 4.630329730406725e6 111.5461074305829
291256.3299623895 4.630329797356834e6 111.56012270414591
291256.32836019155 4.630329800080495e6 111.62212028820673
291256.2388779659 4.630329976161731e6 111.59399351581726
291256.1239717905 4.63033020235925e6 111.54512036254587
291256.12189404044 4.630330206347204e6 111.55911982252344
291256.08804021083 4.6303302729047295e6 111.55711967181963
291256.0737438789 4.630330300738129e6 111.59612102521594
291256.0740611353 4.630330299901795e6 111.62710560191998
291256.02240056556 4.630330401584047e6 111.60712796214901
291255.94078230095 4.630330562268682e6 111.5701215171927
291255.93748559157 4.630330568652575e6 111.58413146397113
291255.84001512855 4.630330760400521e6 111.56112238370204
291255.8269365318 4.63033078584032e6 111.60012289527181
291255.82457310765 4.63033079017701e6 111.64511613646205
291255.6831651165 4.630331068593143e6 111.57787721290501
291255.61125865066 4.630331210030086e6 111.56388064071763
291255.5753628915 4.630331280565329e6 111.56711557254005
291255.5729170532 4.630331284871626e6 111.64013068526305
291255.48484802624 4.6303314583321065e6 111.58912803237621
291255.4740062415 4.630331479409459e6 111.6231359565739
291255.47409674723 4.630331478950109e6 111.66412991719224
291255.44396735664 4.6303315383791085e6 111.63411937794704
291255.34555924236 4.630331732182859e6 111.58012436252734
291255.32901869173 4.63033176442745e6 111.6191392201245
291255.32911478775 4.6303317639571605e6 111.66012617650732
291255.2074317715 4.630332003132962e6 111.66112708453693
291255.1562809426 4.630332104039948e6 111.60813102372528
291255.0800820931 4.630332253962148e6 111.58713488827202
291255.07598392246 4.630332261894078e6 111.60512580745912
291255.07459861354 4.630332264212051e6 111.6641181834204
291254.9729881641 4.630332463918964e6 111.66713379607327
291254.8665803302 4.6303326736669475e6 111.58112174712217
291254.8383759425 4.630332729099134e6 111.58213351030186
291254.82918544183 4.630332746999412e6 111.60613166157424
291254.82844325877 4.63033274812872e6 111.65413062748404
291254.7006645166 4.630332999231576e6 111.66311784799386
291254.6493307103 4.630333100553176e6 111.60211821831267
291254.5911666439 4.630333215018748e6 111.58215352701768
291254.5822520748 4.630333232040383e6 111.65512991782933
291254.4214215565 4.630333548117265e6 111.66313174760772
291254.35573459504 4.630333677768441e6 111.58513221883571
291254.3218608527 4.630333744365048e6 111.58314079512533
291254.31065529276 4.630333766226265e6 111.60712488647202
291254.30968685664 4.630333767745338e6 111.66312915635912
291254.1493144347 4.6303340830317475e6 111.65511337394742
291254.06759084424 4.6303342441910915e6 111.5791187710677
291254.04723148036 4.630334284044938e6 111.6031433359121
291254.04667349893 4.630334284757292e6 111.65913622571713
291253.8702695407 4.6303346315281475e6 111.65512244489919
291253.80091964634 4.630334768351761e6 111.58112832000324
291253.78894072404 4.630334791890909e6 111.58212912708798
291253.778339649 4.630334812570697e6 111.60512872713213
291253.77760355384 4.630334813701846e6 111.65111660886942
291253.6047857113 4.630335153341057e6 111.65914832243533
291253.54299047886 4.630335275377105e6 111.57611860817941
291253.5279731556 4.630335304888523e6 111.57713030342588
291253.51634659234 4.630335327611463e6 111.5961344059703
291253.515792977 4.630335328315217e6 111.65212993651414
291253.3434023599 4.630335667114887e6 111.66012925729146
291253.3401926597 4.630335673492671e6 111.65011848817562
291253.2815851297 4.630335789187136e6 111.57812477745894
291253.27344944037 4.630335805171816e6 111.57914452458608
291253.2595590627 4.630335832186753e6 111.62113315457988
291253.2582380386 4.630335834549937e6 111.65513561410759
291253.05649043777 4.630336231143699e6 111.65011473003929
291253.0367430138 4.630336270275378e6 111.6041276036978
291252.9970874067 4.630336348449827e6 111.57112823593975
291252.98976653884 4.6303363628192255e6 111.57413630707529
291252.9830281516 4.630336375961267e6 111.58914909036903
291252.9788095514 4.630336383821038e6 111.65212939151985
291252.7851195038 4.630336764521498e6 111.65514949124054
291252.73813125805 4.630336857479981e6 111.56813526642722
291252.7178418022 4.630336897354558e6 111.56912576990348
291252.70824643713 4.630336916050615e6 111.59312829702242
291252.7099135895 4.630336912409621e6 111.6461466878634
291252.49941995554 4.630337326139748e6 111.64913964129703
291252.47873064195 4.630337367274046e6 111.58112661068515
291252.4473193327 4.630337429085317e6 111.57114267298076
291252.4377255551 4.630337447771474e6 111.59613277260672
291252.4365593215 4.6303374497205205e6 111.64613927631919
291252.2136914938 4.630337887773596e6 111.64913583170603
291252.1988620599 4.630337917382586e6 111.58214337356928
291252.19261031935 4.630337929726117e6 111.57413528683905
291252.1711010433 4.630337971991414e6 111.57614313957184
291252.1615305889 4.630337990672913e6 111.59513420308079
291252.16054769605 4.630337992199786e6 111.65414149314415
291251.9328119749 4.630338439869245e6 111.65015388923224
291251.92749198026 4.630338450683477e6 111.59813524135224
291251.9155812112 4.630338474246456e6 111.5761528526792
291251.9003818661 4.630338504129465e6 111.57515392891851
291251.8908008631 4.630338522865967e6 111.58915362354313
291251.88702077017 4.630338529898198e6 111.64712336671502
291251.65524884255 4.630338985487695e6 111.64511872712428
291251.6438435891 4.630339008386477e6 111.57515001021603
291251.62580477016 4.630339043857685e6 111.57315028349934
291251.61643833545 4.630339062131394e6 111.59312673159206
291251.6128068571 4.630339068878018e6 111.6501478217658
291251.3788111211 4.630339528852405e6 111.64614387944546
291251.38285973435 4.630339521265438e6 111.59209605739821
291251.37377325585 4.630339539263137e6 111.57212305689474
291251.3524820929 4.630339581120404e6 111.57111605655368
291251.3417990068 4.630339601830824e6 111.61313363587554
291251.3358288893 4.630339613318657e6 111.64913262772974
291251.1076830767 4.630340061787275e6 111.64615362138125
291251.1084425282 4.630340060637928e6 111.59612956282791
291251.1001701446 4.630340077035466e6 111.57615045137014
291251.0813020473 4.630340114129755e6 111.57516542082132
291251.0708210235 4.630340134367718e6 111.62814756377593
291251.0545531369 4.630340166159001e6 111.65512449929943
291250.82542702276 4.630340616609573e6 111.64412702232916
291250.82598318113 4.630340615852895e6 111.59511201415476
291250.8174989066 4.630340632680645e6 111.57313537417997
291250.7992384692 4.630340668573704e6 111.57314099734266
291250.7888591469 4.630340688851982e6 111.59113395008907
291250.78650263185 4.630340693127148e6 111.64311035438755
291250.54416986427 4.630341169461422e6 111.64311999956168
291250.54303623846 4.630341171991523e6 111.5991584166058
291250.5268090799 4.630341204135743e6 111.56306872166964
291250.51112058474 4.630341234938771e6 111.56810903582706
291250.5061774549 4.630341244503922e6 111.59012731633261
291250.50617136044 4.630341244419953e6 111.6041023695425
291250.50153385714 4.630341253665873e6 111.58511703210554
291250.52126416215 4.630341215096122e6 111.5541588113167
291250.5435475623 4.630341171481522e6 111.52705033282876
291250.52847692557 4.630341201200131e6 111.51314751402596
291250.5429475909 4.630341172838947e6 111.50110822937702
291250.5573398994 4.63034116951258e6 107.8651008931309
291250.5641091284 4.630341157854691e6 107.62508644842674
291250.55602376466 4.630341173905162e6 107.60211521935956
291250.52902665816 4.630341226950508e6 107.60513458414641
291250.4898115091 4.630341304279957e6 107.56910944839782
291250.48264820385 4.630341318154392e6 107.59910060098726
291250.4125044138 4.630341455903289e6 107.61762750170126
291250.3365646654 4.630341605230268e6 107.6091466960252
291250.3122720538 4.630341653028586e6 107.60211824930921
291250.30831371935 4.6303416605413975e6 107.64112031279434
291250.303452735 4.630341670096257e6 107.64111931660382
291250.3006764495 4.630341675670223e6 107.62410091380755
291250.2641040732 4.630341747900891e6 107.57410649824702
291250.24773254094 4.630341779751447e6 107.62212386495295
291250.1171030166 4.630342036526171e6 107.62116161935877
291250.10566188116 4.630342059187108e6 107.59610879654335
291250.0841114212 4.630342101512564e6 107.60114504565563
291250.07737838867 4.630342114589442e6 107.62411627885153
291250.07552407344 4.630342118117742e6 107.64109647635645
291250.05390788417 4.630342160867648e6 107.60312859865877
291250.0345236365 4.6303421991687985e6 107.5741335418246
291250.02232636546 4.630342223061751e6 107.58611465612086
291250.0067643 4.630342253362191e6 107.62816189693302
291249.8966898784 4.630342469754545e6 107.62411618843738
291249.8878150619 4.630342487349935e6 107.60214220155125
291249.865537012 4.630342531174533e6 107.59713189469794
291249.8579452966 4.6303425459594345e6 107.61716397531386
291249.857698532 4.630342546341618e6 107.63214624294089
291249.84006198816 4.630342580919256e6 107.64512669678199
291249.80898230604 4.630342642374056e6 107.59211932996918
291249.79539487755 4.6303426691023465e6 107.5891251170694
291249.7843672024 4.630342690572671e6 107.61911570158415
291249.66692814644 4.630342921378922e6 107.62412704797052
291249.64350200735 4.630342967659294e6 107.59012214737497
291249.63577772834 4.630342982794229e6 107.59712346428245
291249.6283500333 4.6303429971605735e6 107.63116079062372
291249.60260029556 4.630343047699473e6 107.64213167723159
291249.57213496004 4.630343108001548e6 107.58113564330145
291249.5591382864 4.630343133541086e6 107.58215439423807
291249.5474794937 4.6303431561969565e6 107.62015465857668
291249.44195705024 4.630343363655388e6 107.61413676277299
291249.4159395363 4.630343414905776e6 107.59814099072901
291249.4048965435 4.630343436378679e6 107.63214145787568
291249.37082400185 4.630343503297569e6 107.64012439690204
291249.3388693571 4.630343566423868e6 107.59415877931615
291249.3202761035 4.630343603019486e6 107.58711913158176
291249.31290382025 4.630343617345775e6 107.61112652646757
291249.3134571583 4.630343616161919e6 107.6251387640786
291249.19939173025 4.630343840577365e6 107.59512510870732
291249.19125871826 4.630343856529462e6 107.60012408078556
291249.18288363796 4.630343872861123e6 107.61914231941
291249.176959971 4.630343884354e6 107.64110758343145
291249.1398513491 4.630343957302266e6 107.6401194490519
291249.10673206684 4.630344022807129e6 107.58114273436736
291249.09174815094 4.6303440522325635e6 107.58511370161912
291249.0806758813 4.630344073728625e6 107.62412299163695
291248.96795979654 4.630344295443459e6 107.60114630828518
291248.95775835245 4.630344315248719e6 107.637109723237
291248.8981366954 4.63034443242855e6 107.63911130450384
291248.8848188968 4.630344458825803e6 107.60713875806063
291248.8627802378 4.6303445023034215e6 107.58412995971001
291248.85711828986 4.630344513419098e6 107.58610585599116
291248.8495150241 4.630344528151314e6 107.61711869663414
291248.7702201756 4.6303446840490755e6 107.61214404494734
291248.755437743 4.630344713201771e6 107.59815590537605
291248.739197451 4.63034474502804e6 107.61213663320329
291248.73548373446 4.630344752190491e6 107.63213598347426
291248.65400857566 4.630344912387961e6 107.62511564014812
291248.63664061803 4.630344946807959e6 107.58416102922794
291248.6287337248 4.630344962349948e6 107.58415599474723
291248.61913908634 4.630344981030884e6 107.61015295682886
291248.5469495686 4.630345122900811e6 107.61412846875078
291248.5279684636 4.6303451603957405e6 107.58714276098137
291248.5029136219 4.630345209342105e6 107.63112330458695
291248.4309193652 4.630345350917111e6 107.62215209127669
291248.4213809198 4.630345370133e6 107.55414330477362
291248.4108814451 4.630345390819221e6 107.54711787132888
291248.37502041884 4.630345460875846e6 107.61012097795081
291248.3259400589 4.630345557424546e6 107.59915024989016
291248.1884113041 4.630345828097357e6 107.54912948259765
291248.15681905416 4.630345889818118e6 107.60413175164831
291248.04470294085 4.630346110175528e6 107.60709717174828
291248.0562924573 4.63034608753205e6 107.58712559142245
291248.0569375822 4.630346086833929e6 107.50411068830479
291248.04570383736 4.630346109052912e6 107.48405405068594
291248.0431954704 4.6303461157890735e6 107.22105348751222
291248.0539091738 4.630346096315545e6 106.99011296712365
291248.04231834057 4.630346119366899e6 106.95105317582497
291248.047743929 4.630346121417142e6 105.09908807842436
291248.05113921553 4.6303461152517e6 105.02503748323473
291248.06145122554 4.630346095132606e6 105.00313006641473
291248.0541686413 4.630346111281164e6 104.73603721433128
291248.0652890217 4.630346089552509e6 104.71713198821082
291248.0652724043 4.630346091548761e6 104.43112897843554
291248.0590505724 4.630346103902258e6 104.41310669147877
291248.06599599344 4.63034609040795e6 104.3901289068629
291248.0561617833 4.630346109971774e6 104.35611956248756
291248.0590205842 4.630346104462083e6 104.34015193703173
291248.10404655326 4.630346015965071e6 104.33913666245829
291248.11504008796 4.630345994513723e6 104.31615634001291
291248.4379363418 4.630345359679656e6 104.33690593358271
291248.9652234097 4.630344323066757e6 104.3611490988689
291248.97927439713 4.630344295598839e6 104.33915602372406
291249.0090527871 4.63034423700405e6 104.3481523251169
291249.38241713843 4.630343503193641e6 104.3361586531203
291249.4531266978 4.630343363999606e6 104.36614139973962
291249.6557193922 4.630342965792967e6 104.36413362507113
291249.72004929505 4.630342839488837e6 104.34314962907912
291249.81247579627 4.630342657710364e6 104.35815414428815
291250.0483971691 4.630342194129578e6 104.33613380739725
291250.0595193528 4.630342172198866e6 104.34614260675828
291250.07570676954 4.630342140277601e6 104.36113630179331
291250.0822189037 4.630342127525324e6 104.35412882247687
291250.433445268 4.630341437159377e6 104.35239300261762
291250.5139413517 4.630341278874635e6 104.36112673055474
291250.5241122882 4.630341259012746e6 104.34214575248578
291250.5618367099 4.630341184881513e6 104.33913408967341
291250.570717447 4.630341167281164e6 104.36013543050441
291250.6701073643 4.630340971973222e6 104.35213150341671
291250.67581245356 4.630340960862051e6 104.33714803170709
291251.3093305756 4.630339715532318e6 104.34782502803559
291251.5254784404 4.630339290692872e6 104.34413929951565
291251.53416442056 4.630339273482353e6 104.36411931660446
291252.03095282934 4.630338297119521e6 104.3444821917258
291252.8258183091 4.630336734779627e6 104.33512172497957
291252.82532439544 4.630336733109781e6 104.7197472069258
291252.81400310487 4.630336735800629e6 107.56909061552315
291252.6157874256 4.6303371252183365e6 107.5980994813572
291252.6051547823 4.630337144429091e6 107.84410630784906
291252.61968023196 4.630337115719563e6 107.86711970434342
291252.63895101385 4.630337077874859e6 107.86211705415761
291252.78407621343 4.630336792400986e6 107.89310559905434
291252.7917846838 4.630336777337975e6 107.88015427567841
291252.83154639165 4.630336699181699e6 107.88012995326802
291252.8584962197 4.630336646112546e6 107.89411403807055
291252.8668007049 4.630336629843863e6 107.88613431611512
291252.8708568175 4.630336621802617e6 107.89610659383791
291252.87076139986 4.630336621749781e6 107.93112035547234
291252.89775132196 4.630336568643149e6 107.93908439145133
291252.93471952854 4.630336496313721e6 107.89013771107706
291254.4957147449 4.630333427833621e6 107.91276597625614
291255.1430618463 4.630332155419657e6 107.90912543632876
291255.14797483844 4.630332145872445e6 107.89312284115006
291255.2281531659 4.630331988478141e6 107.86313457211308
291255.23194634187 4.630331980898564e6 107.88114189351312
291255.26349252445 4.630331918987401e6 107.86706136715229
291255.27169795905 4.630331902741487e6 107.8841232320178
291255.28656340466 4.630331873665849e6 107.86312126339999
291255.2940471082 4.63033185894882e6 107.86412697322771
291255.4759513102 4.630331501813114e6 107.80310041522809
291255.4791145929 4.630331495416743e6 107.82910777147765
291255.49392244045 4.6303314663443975e6 107.82411639846458
291255.49844843545 4.63033145761959e6 107.79912484983257
291255.5424946952 4.630331371069067e6 107.7950868370184
291255.5623929221 4.630331332045836e6 107.78210344193168
291255.56519302854 4.630331326479994e6 107.79111872867392
291255.5757095031 4.63033130573305e6 107.80212166431184
291255.6118007369 4.6303312347776145e6 107.80412496002462
291255.63046789716 4.630331197628496e6 107.87062414338061
291255.6333989226 4.630331191623451e6 107.9061286687213
291255.6506244724 4.630331157555266e6 107.93661175408717
291255.6760185156 4.630331107362133e6 107.97711383540266
291255.68983160483 4.63033108027954e6 107.9671070119441
291255.6986154687 4.63033106314766e6 107.94760903978924
291255.70718380203 4.630331046439471e6 107.92810533334126
291255.77167086897 4.630330919586971e6 107.94199707664306
291255.957761724 4.630330553881009e6 107.93062125535101
291256.06117785623 4.630330350470213e6 107.95012283758939
291256.0623488106 4.630330348065587e6 107.96512136541521
291256.0955491551 4.630330282655241e6 107.98712318192229
291256.11041837453 4.630330253606466e6 107.96112812166223
291256.1139511504 4.630330246353505e6 108.0061149781463
291256.13019812247 4.630330214493613e6 107.9951188985276
291256.1303285085 4.630330214546233e6 107.95012515306718
291256.1466978611 4.630330182741041e6 107.89612448147314
291256.14869286673 4.630330178716714e6 107.91111253484796
291256.2141899502 4.630330049981094e6 107.91012015832403
291256.2385227902 4.630330002165639e6 107.90812725879813
291256.26603068574 4.630329947896469e6 107.93712343943183
291256.2843126299 4.630329912036557e6 107.92613269274538
291256.2858132606 4.630329909292921e6 107.89612300147441
291256.3022666677 4.6303298770341e6 107.88413015718989
291256.3391689493 4.63032980443652e6 107.89311486855331
291256.35285370453 4.630329777317728e6 107.92512242382423
291256.37876257463 4.630329726526266e6 107.90537865917938
291256.4079480564 4.630329669352707e6 107.87711705052752
291256.4251735071 4.630329635466538e6 107.88111732316122
291256.44040192646 4.630329605351214e6 107.90762997231865
291256.45686012256 4.630329572825629e6 107.93312090872286
291256.493224027 4.630329501499015e6 107.91112231332463
291256.5110171623 4.630329466654851e6 107.89212995928416
291256.52933835506 4.630329430566824e6 107.9031280580207
291256.5957028515 4.630329299748689e6 107.95712131983514
291256.58361019485 4.6303293237036e6 107.9301270147366
291256.59528943565 4.630329300025762e6 108.03512521215835
291256.565390158 4.6303293586041955e6 108.0631212629298
291256.5662361654 4.630329356522418e6 108.12412786807259
291256.57408205007 4.630329340949299e6 108.14613380728164
291256.56640213646 4.630329356086399e6 108.14011790378633
291256.5483158101 4.630329391561703e6 108.15112311175932
291256.54794408235 4.6303293918735245e6 108.21213055872865
291256.5665940665 4.630329355187265e6 108.21613044235133
291256.5819377416 4.630329324814752e6 108.24710582276785
291256.57885124104 4.630329330826579e6 108.25512591323822
291256.56670207623 4.630329354762101e6 108.24713385618846
291256.5482217027 4.630329391018864e6 108.25713221405563
291256.548096046 4.630329390950082e6 108.3031258177362
291256.5649077658 4.630329357856551e6 108.3101264821572
291256.5668360383 4.630329353791692e6 108.35012374191422
291256.5479691652 4.63032939088364e6 108.34912906639109
291256.5477998697 4.630329390797572e6 108.41013432543714
291256.5764351885 4.630329334363892e6 108.43161832867618
291256.55664904887 4.630329373231863e6 108.43512534097056
291256.54787105497 4.630329390341842e6 108.45613274542994
291256.5480310724 4.630329389924324e6 108.47113256789784
291256.51268769795 4.63032945925185e6 108.49212828767595
291256.512595178 4.63032945869911e6 108.5991249624793
291256.53144236736 4.630329421618341e6 108.60412687989556
291256.5314473171 4.630329421134858e6 108.67313042633356
291256.53158910404 4.630329420698278e6 108.69612636061996
291256.51315078186 4.630329456982228e6 108.6901254906146
291256.51261903666 4.630329457711566e6 108.73613311511605
291256.53144162794 4.630329420620853e6 108.74962579198328
291256.54904489656 4.63032938593364e6 108.76213173817003
291256.5529671332 4.630329378375141e6 108.74011911580325
291256.5600347851 4.630329364393645e6 108.75310717898591
291256.56163901987 4.6303293611648595e6 108.76409937054969
291256.53190144844 4.630329419349759e6 108.80311865957677
291256.53178348235 4.630329419794463e6 108.77211960923634
291256.51293506887 4.630329456877572e6 108.76712733679439
291256.5147992287 4.630329451792177e6 108.97412448425739
291256.5155248925 4.630329449150575e6 109.1511254570001
291256.5339382533 4.630329412864242e6 109.16461986897508
291256.5509298592 4.630329379379299e6 109.17712973819286
291256.5575983231 4.63032936569498e6 109.26112015862276
291256.5533872791 4.630329374047894e6 109.25010910317094
291256.5711860871 4.6303293484612e6 107.88111252731095
291256.5654499046 4.630329359633333e6 107.89611873448501
291256.5978938865 4.630329295840196e6 107.89911476892328
